39.840708,157.839996338,157.839996338,158.685287476,159.206314087,159.663803101,160.267349243,161.816253662,162.837402344,165.750778198,166.073013306,166.547286987,168.216323853,170.37727356,172.508865356,173.05607605,172.36630249,172.03729248,172.777420044,174.702545166,177.429550171,179.533462524,179.44442749,180.032119751,182.656799316,182.745056152,179.535263062,176.50604248,171.620834351,168.092285156,166.380966187,166.844955444,166.638305664,165.21270752,163.469299316,159.40864563,159.533874512,160.574951172,162.21081543,162.349472046,164.351394653,165.381149292,167.900726318,170.098358154,170.429748535,170.415527344,171.68522644,173.739746094,174.767059326,172.443572998,173.265258789,175.306900024,178.220336914,177.35446167,169.00112915,162.920028687,159.906051636,159.700820923,158.35144043,158.538375854,156.836135864,156.373519897,157.210006714,157.182907104,155.88999939,154.731185913,154.853088379,154.731613159,154.58442688,155.253250122,155.70652771,156.563522339,155.35559082,154.825805664,155.648040771,155.104217529,149.046401978,146.752380371,146.258300781,145.152328491,145.316253662,146.259658813,147.741882324,150.311645508,150.382980347,151.054107666,149.935958862,148.781616211,148.981781006,152.959991455,154.693023682,155.535003662,156.243133545,155.001556396,157.044494629,157.872756958,156.612640381,157.659866333,159.295333862,162.007995605,163.080169678
39.840124,157.839996338,158.648040771,160.26550293,162.143386841,162.224914551,162.301559448,162.305511475,163.558166504,164.525360107,165.504119873,167.352813721,170.432434082,172.032043457,173.053359985,172.056274414,172.1068573,173.56451416,174.479064941,176.82421875,178.995864868,181.216720581,181.107330322,180.702713013,183.062225342,184.130722046,179.562850952,172.559997559,169.660476685,167.122329712,166.805160522,166.388580322,166.364456177,165.434890747,161.40838623,158.429199219,159.709442139,161.523727417,165.213729858,167.540237427,167.381622314,167.45475769,171.501602173,174.150421143,173.526092529,171.874420166,173.391189575,175.50819397,174.420974731,171.797164917,172.932785034,175.393493652,178.637664795,173.883605957,166.142227173,163.029296875,160.877578735,159.966842651,158.395324707,158.044219971,157.136489868,156.410827637,156.011474609,155.722076416,155.312164307,155.64630127,155.166503906,153.487319946,153.587936401,153.901611328,155.521270752,153.575698853,152.86895752,154.041061401,153.374130249,153.236618042,149.792572021,147.626480103,147.24118042,145.089584351,145.248245239,145.329330444,147.839996338,149.010543823,149.351425171,149.791137695,148.740234375,148.272583008,150.307296753,152.340835571,153.597686768,154.719985962,154.14239502,154.432128906,155.718505859,155.076385498,157.110549927,159.170181274,164.191604614,166.774887085,166.876052856
39.839539,158.107574463,160.271484375,162.355194092,163.720626831,164.770263672,164.557113647,164.251602173,163.91027832,164.805709839,165.541931152,167.452896118,170.011627197,170.868240356,171.661987305,171.096694946,172.501541138,175.051605225,177.360122681,178.631149292,181.199035645,182.759155273,182.173690796,182.134735107,183.49798584,184.646560669,178.197753906,171.227142334,168.354278564,166.438217163,165.833023071,164.928314209,165.128753662,164.097885132,160.972869873,159.067459106,160.56288147,162.247024536,165.974945068,168.673171997,168.169815063,168.863601685,172.434936523,175.579559326,174.520599365,173.311126709,174.399261475,176.428512573,172.419967651,171.047775269,173.602874756,176.208877563,177.500457764,169.517181396,164.594406128,165.479522705,160.768554688,159.769302368,157.954818726,158.107406616,158.038146973,156.696746826,156.253662109,156.457092285,156.548950195,157.228530884,157.593093872,155.773010254,153.425613403,152.13583374,150.516448975,150.61151123,151.47416687,151.528213501,150.176544189,149.88999939,148.568435669,146.6484375,146.980529785,145.268692017,145.095001221,145.33984375,146.279998779,147.84262085,148.247161865,148.958587646,147.626373291,148.815063477,149.856567383,152.145065308,154.10597229,153.030715942,158.480545044,155.585617065,155.384109497,157.584991455,158.662368774,160.188522339,162.621109009,165.666778564,166.798828125
39.838954,159.48348999,160.273956299,161.718704224,162.742523193,164.539398193,164.475112915,165.328933716,166.029876709,166.383224487,167.474517822,167.650878906,167.797012329,169.160125732,170.454147339,171.482513428,173.459152222,175.983169556,179.702987671,180.482147217,182.616485596,183.753387451,183.463241577,183.727218628,184.322631836,184.449996948,174.923355103,170.714813232,167.992584229,166.679244995,166.052108765,165.726852417,163.582015991,162.124435425,159.526046753,158.797683716,159.739257812,163.040023804,167.197738647,169.567504883,169.954040527,170.824371338,173.275436401,173.446365356,172.268753052,174.3019104,175.980484009,174.909194946,170.973571777,170.878189087,174.36579895,178.021087646,174.147888184,166.336791992,164.712921143,160.306167603,160.523788452,158.976303101,158.411239624,158.12562561,158.05696106,156.727020264,158.225982666,158.352981567,158.293624878,156.909896851,157.221496582,156.596969604,153.761474609,153.64352417,153.777496338,154.02053833,153.246047974,150.777786255,149.84538269,148.942596436,147.652175903,146.190689087,146.612030029,145.486465454,144.082550049,145.09526062,145.36000061,146.553024292,147.641433716,148.25617981,147.132171631,148.325393677,150.608184814,153.056213379,152.466140747,153.366378784,151.947143555,155.950408936,157.037567139,157.289993286,159.131332397,161.389205933,164.309158325,165.597717285,168.262741089
39.838370,162.02734375,161.629516602,161.530441284,162.459640503,163.367874146,164.400009155,165.766662598,167.291900635,168.657241821,170.475296021,170.239807129,170.177276611,170.031997681,170.559005737,172.449249268,174.955215454,178.273345947,181.595275879,182.075454712,183.96572876,184.428833008,184.552200317,185.438568115,185.140945435,182.848754883,175.91583252,169.827270508,167.915756226,165.919998169,165.221191406,165.070007324,163.348342896,160.206298828,160.874710083,158.6043396,159.158493042,164.827713013,168.091827393,170.490264893,172.21270752,173.496383667,173.898712158,171.556488037,169.986068726,174.171340942,175.967071533,172.56867981,169.838729858,170.935821533,174.584274292,177.588973999,170.3097229,162.27166748,159.369338989,159.5,159.610855103,158.881713867,158.743438721,157.998580933,158.11000061,159.676559448,159.331176758,160.137573242,159.112258911,157.421905518,157.933456421,156.67980957,154.516494751,155.887557983,156.426971436,155.970901489,155.46987915,154.176132202,152.918457031,151.496566772,149.839263916,148.824630737,146.265625,146.294006348,145.15864563,144.000366211,145.158584595,146.051132202,146.739196777,146.858261108,146.691894531,148.825042725,149.880310059,150.321395874,150.107940674,151.216384888,154.16557312,155.293243408,156.558822632,157.096878052,158.087051392,160.389648438,162.422348022,167.147262573,169.428695679
39.837785,162.936004639,163.981246948,163.994689941,163.403045654,163.531692505,164.285400391,165.371368408,167.22265625,170.12449646,172.424194336,172.0887146,172.039749146,170.707290649,171.820465088,174.387741089,177.315307617,180.684570312,183.560684204,184.118606567,183.979568481,184.504714966,183.969497681,184.653747559,185.731002808,181.212738037,173.729766846,169.218948364,166.997436523,165.471054077,163.909194946,163.40914917,163.337600708,162.829147339,162.69593811,158.747879028,158.660064697,166.15045166,169.374557495,170.346084595,173.688858032,174.563247681,173.747024536,170.312286377,171.477722168,173.976486206,175.198883057,170.290878296,168.529449463,170.717926025,175.248947144,176.588562012,167.819778442,159.580001831,159.380004883,159.440002441,159.440979004,159.160491943,158.244552612,158.656478882,158.938598633,160.472015381,161.251617432,161.054931641,159.55682373,157.976013184,156.82359314,156.270874023,155.728912354,157.401260376,157.518753052,156.481201172,156.789215088,155.528869629,153.61328125,152.029769897,150.611572266,148.650512695,146.205154419,145.466018677,145.032852173,144.95300293,145.150222778,145.702316284,146.282531738,145.946060181,146.516555786,146.61000061,148.342590332,148.950469971,153.569747925,153.99520874,154.332794189,155.100097656,156.050445557,157.245620728,159.849914551,163.835494995,164.444946289,166.46697998,170.122360229
39.837201,162.486587524,164.593856812,166.043121338,164.340576172,163.977127075,166.004272461,166.623840332,169.01272583,171.33732605,173.14692688,172.938705444,171.512023926,171.743240356,173.793579102,176.929199219,179.632049561,182.114883423,184.917358398,185.338226318,184.315002441,183.451339722,180.835403442,183.847457886,185.006286621,177.955337524,172.6590271,168.757217407,167.410079956,166.637268066,164.891937256,163.175811768,162.026870728,162.360565186,161.880569458,158.874008179,159.184707642,165.840988159,166.58265686,168.391448975,170.470993042,173.924102783,171.75881958,169.738128662,171.147903442,173.960952759,171.435394287,168.852996826,168.390640259,171.17779541,175.907211304,176.404586792,165.931167603,160.940002441,159.380004883,160.054367065,159.229995728,159.139419556,159.352493286,159.636016846,160.049499512,161.687667847,160.867126465,160.581680298,159.714065552,159.279388428,158.20880127,156.661972046,156.893356323,157.052429199,156.063934326,156.001602173,154.694366455,153.545181274,152.903869629,151.461959839,149.882247925,146.941268921,146.68649292,146.328338623,144.541183472,144.576263428,144.745010376,144.826919556,145.218994141,145.784088135,147.85206604,149.247451782,151.502593994,152.330032349,153.025177002,153.253997803,154.580230713,156.971725464,157.797042847,158.898025513,159.145462036,165.957580566,167.073730469,167.674468994,170.904296875
39.836616,163.958877563,165.058898926,166.357376099,164.763275146,164.958068848,166.382019043,168.752731323,171.305374146,172.905319214,173.074920654,172.094055176,172.34803772,173.792999268,176.127563477,179.223846436,183.560653687,185.248062134,186.400115967,185.750350952,184.053970337,180.849365234,180.866149902,184.587295532,184.969619751,177.992919922,171.046356201,167.732772827,165.826126099,164.403244019,163.643112183,163.81892395,161.641830444,160.345993042,159.488265991,157.946731567,158.995315552,166.271560669,167.327484131,168.52394104,170.922409058,172.321762085,168.658157349,168.718856812,172.048187256,172.713027954,169.317718506,167.597702026,168.07585144,171.636749268,175.912322998,173.404998779,166.154556274,161.580230713,160.060165405,160.382598877,159.375991821,158.877456665,159.641937256,160.748046875,161.368453979,160.666854858,160.086654663,159.500701904,159.294372559,159.129989624,158.857376099,158.209854126,158.221237183,157.467468262,156.553573608,154.638839722,153.018737793,151.718475342,150.78994751,150.65776062,150.390411377,147.143981934,146.367202759,145.365234375,145.622436523,143.579437256,144.654022217,145.334274292,145.774124146,146.468765259,147.873947144,149.716918945,151.53918457,152.64956665,152.494262695,153.245666504,153.920211792,156.115219116,157.855361938,158.086257935,159.172561646,164.812423706,167.138519287,170.457458496,172.437332153
39.836032,164.830474854,166.422790527,165.820861816,165.249328613,166.002563477,167.752578735,170.217498779,172.917434692,174.193145752,173.681427002,171.297897339,172.484024048,176.05418396,177.863937378,181.7396698,185.374862671,187.691772461,187.426055908,185.816650391,183.222213745,179.889129639,178.576690674,182.759872437,182.350585938,178.21383667,171.382919312,167.664993286,165.857391357,164.20123291,163.724212646,162.552612305,162.490585327,163.388442993,160.869140625,157.165130615,162.567199707,168.105133057,170.118606567,171.327545166,172.740234375,170.362808228,166.665557861,169.545043945,171.972290039,169.412109375,168.151321411,166.881576538,168.020248413,171.959793091,175.906936646,169.243087769,164.509017944,161.908874512,161.041290283,159.697036743,158.654525757,158.38999939,159.313171387,160.002044678,160.099594116,160.232376099,160.011398315,159.333206177,159.11000061,158.113449097,158.212188721,159.513778687,158.528503418,158.50994873,156.910293579,154.844314575,154.25352478,153.155181885,151.124069214,149.794448853,147.725585938,147.071212769,150.128204346,150.101989746,150.18270874,146.92149353,144.587509155,144.468048096,145.55758667,146.068344116,149.261001587,150.510345459,151.642242432,152.671340942,153.907974243,156.303207397,155.927825928,156.757858276,157.091384888,160.452133179,163.959213257,165.479919434,168.858505249,169.906158447,175.235671997
39.835447,165.982391357,167.152542114,166.368240356,166.63861084,167.609848022,169.617248535,172.027114868,173.794830322,174.851333618,172.298110962,169.846115112,172.000839233,176.305145264,179.35697937,182.762313843,185.864974976,187.300537109,185.345306396,182.793777466,181.411407471,180.379501343,174.549316406,175.222549438,179.354171753,177.598403931,171.635269165,167.852828979,166.216262817,164.546829224,163.810516357,163.150726318,164.536193848,163.386901855,161.620513916,156.959213257,158.435623169,165.568374634,170.196594238,169.553726196,171.79019165,167.275695801,166.564437866,170.577377319,170.350708008,167.816482544,166.567825317,165.830307007,168.563537598,172.337341309,173.950012207,165.681167603,164.824859619,162.289962769,160.149215698,159.679138184,159.120010376,158.170562744,158.614334106,159.194000244,159.331695557,159.883636475,160.003433228,160.032745361,159.213104248,158.520629883,158.241363525,156.577774048,157.360336304,157.913208008,157.383804321,155.143005371,154.361358643,151.992370605,149.799362183,148.352340698,150.844451904,152.558624268,152.940002441,152.876693726,149.216995239,149.687438965,148.195800781,144.676254272,148.747909546,146.890945435,147.666702271,149.995559692,150.57081604,151.203964233,153.014465332,156.134414673,157.728515625,156.184524536,157.548049927,160.371353149,162.50831604,164.665328979,171.270736694,171.092575073,175.197982788
39.834863,166.52104187,166.498336792,165.669708252,166.595870972,168.845870972,171.67930603,173.501968384,174.570007324,173.832321167,169.719818115,169.82661438,174.26965332,177.993164062,181.230621338,184.739730835,185.960784912,184.543060303,181.940643311,180.531890869,180.72366333,180.985961914,175.025238037,172.369430542,175.957183838,174.859054565,170.336791992,167.309661865,165.186355591,164.734710693,163.570480347,164.148406982,164.184143066,162.557373047,161.312698364,157.763641357,155.721008301,163.497467041,168.136795044,166.347991943,166.680145264,164.008575439,168.290313721,171.170700073,168.369491577,166.453933716,165.826599121,165.791168213,167.819671631,169.906005859,172.680633545,166.902313232,164.44581604,161.397705078,159.960006714,159.102355957,159.205841064,157.752380371,157.677520752,157.85534668,157.442901611,159.487960815,158.39175415,159.772567749,159.912582397,159.204818726,158.333312988,156.446777344,156.190612793,158.009124756,157.457946777,154.083389282,152.779663086,150.372039795,149.262512207,151.963912964,152.361785889,153.890289307,152.493942261,151.83102417,152.204772949,151.36555481,149.895477295,143.116424561,146.759658813,145.87979126,146.952560425,148.1769104,149.635955811,151.031341553,153.935470581,155.347290039,159.283355713,160.756469727,158.015579224,159.776260376,162.038757324,165.296035767,168.919113159,172.113357544,174.61000061
39.834278,165.598251343,164.779907227,164.723526001,167.124450684,170.203109741,172.699279785,172.623962402,173.400772095,170.293716431,167.948135376,171.473175049,176.174285889,180.447341919,183.789718628,185.883544922,185.405471802,181.416351318,179.922088623,179.412261963,181.710617065,181.416885376,173.960083008,170.068649292,174.879867554,172.608016968,168.634765625,165.744232178,164.639541626,163.295532227,162.740997314,162.986816406,162.038818359,161.042526245,161.818054199,160.508758545,156.436218262,157.215652466,162.036849976,161.360198975,162.719284058,165.670120239,169.271697998,171.862304688,167.453323364,165.750946045,165.1537323,165.701385498,167.136627197,169.512313843,173.409133911,168.595001221,164.677276611,161.586776733,162.212783813,159.082672119,159.128845215,157.928512573,157.497589111,157.554595947,157.006637573,157.063064575,158.272354126,158.901672363,158.092605591,158.567504883,156.898132324,156.597457886,154.963790894,156.291061401,154.29095459,152.372360229,151.285018921,151.08013916,152.489715576,155.040634155,155.19921875,154.643722534,153.303359985,153.290390015,151.434951782,150.783050537,147.966690063,147.063095093,145.355804443,145.037628174,146.00352478,147.996520996,150.106185913,152.744018555,155.520355225,156.776702881,160.461975098,161.403839111,160.259857178,161.120117188,164.100891113,168.46043396,171.850540161,173.879989624,174.514907837
39.833693,164.953933716,163.926315308,165.133789062,168.894042969,171.659744263,172.270614624,170.463500977,169.405654907,167.203491211,168.899688721,173.8384552,178.393981934,181.633972168,184.934585571,185.642105103,183.268554688,181.492431641,177.66847229,176.664855957,182.748092651,181.594604492,172.552093506,167.960083008,171.63041687,171.090408325,167.679718018,165.055770874,163.623275757,163.171188354,163.51399231,162.494552612,162.944274902,163.489959717,165.105224609,162.841949463,157.835830688,155.009994507,161.357223511,164.164840698,165.672119141,168.133270264,170.662368774,170.260818481,166.798812866,165.34211731,164.673858643,165.698074341,167.155838013,169.529815674,173.767486572,169.143371582,164.284683228,161.934158325,160.668823242,159.569976807,158.248962402,158.661071777,158.580230713,158.660003662,156.959503174,156.3853302,156.010070801,157.110214233,156.417709351,155.683547974,154.446105957,154.19984436,153.851409912,153.087402344,151.833267212,151.849990845,151.872879028,152.905380249,154.391937256,155.896026611,156.67300415,154.634628296,153.230941772,152.326126099,150.235839844,148.52835083,147.59437561,144.17880249,144.434707642,144.685440063,146.174606323,147.652908325,149.583999634,152.594146729,154.138504028,155.645111084,160.98223877,162.346374512,162.546325684,164.033126831,165.344940186,169.63999939,172.964553833,173.487289429,171.244277954
39.833109,164.827926636,163.18888855,166.026565552,170.329147339,172.738128662,172.891082764,169.755569458,166.324356079,166.527923584,171.144699097,175.229064941,180.014907837,183.514907837,184.960998535,183.127227783,181.310791016,179.768997192,178.002059937,172.224472046,176.914276123,175.093978882,167.381149292,166.710296631,169.738357544,171.554504395,167.737823486,165.120544434,163.860336304,162.942260742,163.364837646,163.929885864,165.790008545,165.756027222,166.545669556,163.764450073,158.090988159,155.882263184,161.770385742,165.869888306,168.156906128,169.8309021,170.31199646,168.313323975,166.077529907,165.075942993,164.274032593,166.167449951,167.289993286,169.664108276,173.877304077,170.048660278,164.335571289,162.165344238,160.611618042,159.772796631,159.48526001,161.215759277,160.219223022,159.328369141,158.170730591,158.077362061,155.617370605,154.824630737,154.747940063,153.802154541,154.535324097,154.798095703,155.021148682,154.249557495,153.345657349,152.942947388,153.363265991,155.117721558,156.042938232,156.25743103,156.260787964,155.752258301,154.191757202,152.345001221,152.420379639,149.327224731,148.740219116,144.202224731,144.404388428,144.843597412,145.65171814,147.063491821,148.99621582,150.729141235,152.799819946,156.00302124,160.020385742,162.902420044,164.940948486,165.284561157,166.512557983,170.151489258,171.695892334,168.91204834,167.715637207
39.832524,162.891967773,163.283218384,167.673828125,170.914764404,171.963256836,171.503067017,166.740615845,164.801147461,168.144042969,173.828216553,178.548995972,183.334747314,183.563461304,183.945465088,180.823196411,179.286102295,177.857681274,177.99458313,174.620910645,169.781051636,167.747894287,165.638412476,165.623336792,168.52130127,171.644500732,167.345779419,165.752304077,163.906692505,163.280654907,164.157424927,165.504318237,167.277481079,168.149642944,166.313018799,163.332321167,157.267379761,156.314743042,163.634811401,166.170181274,168.230789185,168.657028198,170.760284424,166.687072754,165.137237549,164.818267822,163.88999939,165.805236816,167.088058472,169.4012146,172.918777466,171.646911621,164.901626587,162.046798706,160.947113037,159.316864014,158.840270996,159.127349854,158.76272583,158.724655151,159.401077271,158.67477417,157.118240356,155.939819336,155.637145996,156.71697998,155.99798584,157.416030884,157.038619995,156.971359253,155.555404663,155.374435425,155.216033936,156.804885864,156.602142334,158.645706177,158.298599243,156.494415283,154.972885132,153.84046936,153.428253174,151.101760864,149.355895996,146.657592773,144.193084717,143.750823975,145.178039551,146.869400024,148.87059021,151.441497803,154.426223755,157.17855835,159.754394531,163.184936523,166.917114258,168.559921265,169.580062866,170.00402832,167.802398682,165.208694458,163.785644531
39.831940,161.347579956,164.79977417,168.512313843,169.986282349,170.556930542,166.483398438,162.807144165,166.274993896,171.184417725,175.813980103,179.103668213,182.563613892,183.638427734,182.824234009,180.548477173,177.927474976,177.651229858,180.00920105,176.972167969,171.781784058,165.465988159,164.095184326,164.796936035,167.867218018,171.79737854,167.830184937,165.321548462,163.810577393,163.821258545,164.748306274,166.56980896,168.220993042,168.524627686,166.022232056,163.583511353,154.589996338,157.073318481,162.57220459,165.926025391,167.06451416,167.917022705,169.10295105,165.77494812,164.464233398,163.726882935,164.155929565,165.863632202,166.19102478,168.983673096,171.812194824,172.747756958,166.745925903,164.233505249,161.399414062,159.69821167,158.736679077,158.025161743,157.467880249,157.316604614,157.156585693,156.031997681,156.011276245,157.940795898,159.43989563,159.902770996,159.502502441,158.57749939,158.86769104,159.164672852,158.777603149,157.859786987,158.653411865,157.218551636,158.369873047,159.562408447,159.139282227,157.999343872,156.53855896,154.205200195,152.787536621,151.339172363,149.767974854,147.112091064,143.149780273,144.072052002,144.702026367,146.693023682,149.280075073,150.718673706,153.654495239,156.581558228,160.077011108,165.598739624,168.218719482,170.893417358,171.721496582,169.021774292,166.515213013,162.709136963,161.280944824
39.831355,162.011398315,165.84564209,167.782440186,168.88710022,165.96522522,161.738433838,164.366607666,169.581100464,173.642623901,177.516571045,181.162704468,182.919906616,182.448486328,180.977661133,179.2056427,175.603805542,173.63381958,174.186752319,172.265396118,168.63293457,164.590011597,163.167221069,164.121017456,167.634872437,171.798965454,168.971328735,165.37387085,163.914749146,165.057556152,166.099395752,167.286056519,168.29359436,165.567108154,163.338394165,159.666137695,156.030105591,159.347183228,164.551574707,164.448562622,167.57182312,169.76701355,168.134109497,165.227371216,163.917495728,163.327667236,164.963912964,165.300842285,167.325210571,168.68951416,171.538574219,172.094802856,168.925827026,165.514343262,161.775115967,159.554992676,159.128845215,158.377609253,157.770278931,157.748306274,156.743942261,155.891021729,156.785614014,158.62953186,160.698028564,161.456329346,160.73348999,160.102783203,161.770996094,162.586273193,159.866592407,159.631637573,158.309494019,158.455368042,160.235321045,160.634735107,160.261535645,158.421768188,156.088745117,154.303619385,153.057769775,152.744995117,150.192504883,148.518157959,146.13192749,143.765716553,143.947509766,146.066268921,150.460800171,153.335861206,155.822174072,159.10017395,164.273635864,168.432754517,170.974517822,172.344696045,171.442199707,170.534957886,169.291885376,164.195205688,158.913208008
39.830771,163.621643066,165.998001099,166.578018188,164.925430298,161.617095947,162.571746826,166.711730957,170.461196899,175.346038818,179.114440918,181.501647949,182.894943237,182.062103271,181.471115112,178.724151611,177.332244873,172.348022461,169.851959229,168.222305298,165.732376099,163.434829712,162.129776001,162.9790802,167.573730469,171.776092529,168.067504883,165.947906494,165.788513184,165.533737183,167.561508179,168.850860596,169.260375977,166.285247803,163.268188477,154.338195801,156.674911499,161.621154785,161.984161377,164.444290161,168.089996338,170.087234497,166.734924316,164.66255188,163.295028687,162.654602051,164.564086914,165.528869629,167.430801392,168.317581177,171.384628296,172.934524536,170.349807739,166.416870117,162.541503906,160.800262451,159.626358032,159.099533081,158.129135132,157.500671387,156.927932739,157.94619751,160.205322266,159.711669922,160.815093994,161.387634277,161.352737427,162.659667969,163.498031616,162.877792358,161.753036499,160.523284912,159.619644165,160.495941162,161.348327637,161.706512451,160.87588501,158.047119141,157.080413818,156.073150635,154.060836792,154.366912842,151.338027954,148.346725464,147.600265503,143.841049194,145.254364014,146.771316528,151.731231689,154.543319702,159.204086304,163.035598755,166.607315063,170.536071777,171.119995117,171.589553833,169.205154419,170.48147583,168.301742554,162.164459229,158.400360107
39.830186,164.863983154,165.667495728,162.944900513,161.011108398,161.188735962,165.512252808,170.603302002,174.800979614,177.577514648,179.0337677,181.474807739,181.520248413,179.898071289,178.504882812,179.09147644,178.257949829,174.227172852,169.001266479,167.164733887,163.061309814,162.2681427,161.0806427,161.807174683,167.273391724,172.227813721,168.578552246,166.098480225,165.17010498,165.84072876,167.626647949,168.157318115,168.127380371,164.962005615,160.428375244,155.49281311,158.326660156,163.196777344,163.753936768,165.368896484,167.043167114,169.760116577,165.694381714,164.073760986,162.842483521,163.408599854,163.921813965,164.75213623,165.944030762,167.601486206,170.762512207,173.206192017,173.678161621,164.680007935,162.802352905,160.837081909,160.393234253,160.348144531,157.984954834,156.651916504,157.792266846,158.711105347,161.387924194,161.045349121,161.734344482,162.813919067,162.468536377,163.37260437,165.113479614,164.186355591,163.372146606,161.499725342,161.15322876,162.102600098,161.4894104,159.705230713,157.681213379,156.734848022,154.802429199,154.841644287,153.180541992,152.674987793,151.140487671,149.099807739,148.760055542,143.787536621,145.075897217,147.610580444,150.382949829,155.052902222,161.463790894,166.385223389,169.521377563,171.397888184,170.236877441,167.692169189,168.792495728,168.302139282,162.765609741,161.028518677,157.699890137
39.829602,166.098846436,162.661026001,159.984909058,158.980529785,163.730575562,167.274902344,171.042297363,175.728607178,178.922836304,180.88999939,181.275283813,179.789138794,177.222869873,175.046936035,175.381881714,177.451934814,173.167480469,167.894561768,163.816894531,163.097946167,161.103164673,160.294769287,161.321044922,164.705215454,169.101898193,168.731964111,166.349853516,165.839538574,166.209991455,166.460388184,166.386657715,164.915527344,163.179519653,154.363372803,155.816131592,160.787322998,164.23399353,163.714813232,166.640274048,169.132110596,169.192596436,164.930053711,163.20954895,162.583862305,163.120727539,163.190567017,165.4087677,165.441772461,166.995117188,170.679656982,174.51675415,171.412338257,165.526550293,162.34475708,161.081558228,161.087753296,159.646789551,157.825561523,157.671920776,158.472290039,159.87286377,162.049911499,162.320297241,163.114547729,163.522491455,164.680221558,165.6065979,166.855773926,166.457931519,165.852645874,163.645095825,163.405853271,162.92829895,159.764953613,158.25769043,158.23979187,156.106201172,153.868240356,152.411895752,151.756790161,150.328857422,149.787460327,146.541763306,143.625244141,143.683944702,144.94229126,152.039733887,152.955780029,156.614868164,162.550323486,167.786239624,171.387466431,172.33972168,170.692184448,166.103729248,168.709442139,168.0912323,164.102859497,156.241241455,155.603713989
39.829017,164.393066406,159.203262329,158.635925293,161.473297119,166.057037354,170.766036987,174.383865356,177.270172119,179.087631226,181.503311157,181.561965942,180.826950073,178.855926514,176.139434814,172.10017395,169.25579834,168.225723267,165.182296753,162.490005493,161.675354004,160.669967651,159.071762085,159.975509644,162.730239868,167.63760376,169.071960449,166.986694336,166.240783691,167.379196167,166.780532837,166.082595825,161.355682373,158.921630859,154.346191406,157.862091064,164.010101318,164.461166382,164.015533447,167.662475586,169.300033569,167.177368164,164.181762695,162.609207153,162.300033569,162.688262939,164.26663208,164.82673645,166.105621338,168.277709961,172.224990845,175.808868408,170.559234619,164.462905884,161.08140564,160.230010986,159.665588379,158.426269531,158.202590942,159.733291626,159.488540649,160.467819214,161.98147583,163.57901001,164.616851807,164.858398438,166.663253784,168.273986816,168.492279053,169.664337158,169.804626465,166.80632019,163.058395386,159.588928223,157.647857666,154.503540039,155.300262451,153.29800415,152.359893799,150.745773315,148.082672119,146.571105957,146.252960205,146.278396606,145.879821777,146.064331055,144.458343506,154.837905884,156.77520752,159.585479736,165.418212891,169.54057312,171.797485352,168.839065552,166.696273804,164.044403076,168.459503174,166.257034302,160.843460083,154.37739563,151.303421021
39.828432,159.288986206,156.949996948,159.513702393,163.72505188,165.354064941,170.032226562,174.444442749,177.725280762,180.699584961,182.005386353,179.815536499,177.793045044,177.744155884,177.771011353,174.347839355,167.958435059,164.289993286,162.379745483,161.756530762,160.995285034,160.051437378,158.753051758,160.249771118,162.1925354,165.952560425,170.055480957,168.81262207,167.077026367,168.483352661,168.854675293,166.914901733,163.693878174,156.18196106,156.052825928,159.886779785,163.843856812,161.473800659,164.15020752,166.440002441,168.821350098,166.045944214,163.390213013,162.107040405,162.434692383,164.093536377,164.657318115,165.891220093,166.961044312,169.876861572,174.150314331,174.820770264,167.640533447,163.816558838,161.682571411,160.799133301,158.88104248,158.227249146,158.838272095,159.814483643,160.733001709,161.797195435,162.717010498,164.095428467,165.8331604,166.820022583,169.277618408,170.903167725,170.403259277,171.630950928,172.473953247,168.392608643,162.84564209,158.982803345,156.994262695,153.630096436,152.030700684,150.462844849,149.728088379,149.282730103,148.193313599,148.003250122,148.809387207,148.688796997,147.297866821,146.273269653,145.293457031,152.666320801,160.205749512,162.458969116,166.789672852,171.099563599,172.200805664,166.453475952,163.790298462,163.175460815,164.424316406,161.922805786,157.807022095,155.674560547,150.897079468
39.827848,156.653656006,158.49256897,163.369018555,165.856063843,169.910583496,171.80947876,175.375579834,177.940414429,180.824615479,182.04119873,180.263305664,176.397369385,173.167266846,174.040527344,172.618103027,168.49508667,164.332717896,161.750152588,160.4349823,160.519256592,159.988357544,158.911682129,159.170120239,160.343765259,166.308776855,170.991836548,168.936706543,167.908691406,168.988540649,169.33656311,166.169189453,160.387329102,153.139724731,155.896865845,159.908737183,160.119369507,161.299560547,163.756362915,165.51965332,168.273574829,164.711730957,162.62387085,162.014846802,162.320480347,164.184524536,165.170700073,165.137329102,166.947036743,170.663665771,174.788101196,173.694671631,165.910812378,163.647537231,161.78036499,159.924575806,159.12121582,159.443405151,161.182632446,161.739242554,161.529327393,162.041824341,163.607788086,165.455062866,167.160415649,169.126586914,171.326568604,172.719970703,172.169998169,171.90486145,170.029098511,162.857391357,160.528137207,160.676971436,162.145111084,159.430099487,155.906341553,153.820861816,151.885345459,154.493392944,154.35496521,153.841995239,155.225585938,155.028213501,153.364700317,146.330215454,146.770370483,153.597640991,160.622268677,165.804885864,168.799331665,171.975448608,171.186813354,168.071899414,163.818527222,159.027648926,161.455795288,159.041427612,155.852020264,154.861083984,151.337783813
39.827263,156.594390869,160.580001831,164.525466919,168.935241699,172.225448608,174.994735718,177.806533813,180.420578003,181.310775757,180.360717773,179.197738647,175.713165283,174.324966431,168.619384766,166.345626831,165.035354614,164.489990234,160.395095825,159.564743042,159.831970215,159.999801636,157.17678833,158.440628052,159.686752319,165.004608154,170.611953735,169.100006104,168.65196228,167.446105957,166.789733887,163.795028687,154.133850098,154.65586853,159.004592896,164.118301392,163.960006714,162.431442261,164.672164917,167.243942261,168.157974243,164.162384033,162.726776123,161.581130981,162.683334351,163.050003052,163.94480896,164.776611328,166.30291748,170.462219238,174.135955811,169.449401855,164.433181763,162.150558472,161.06628418,159.988708496,159.398162842,161.303573608,163.273223877,162.702178955,163.265274048,163.184020996,164.830001831,167.05178833,168.733322144,170.113098145,172.119247437,172.601226807,171.099868774,169.784667969,162.753768921,162.901092529,161.512435913,162.010025024,162.747558594,157.921020508,158.078414917,153.000854492,154.721969604,158.960479736,160.008377075,159.343170166,160.326187134,159.165603638,154.576461792,143.154144287,147.059860229,155.622146606,163.346435547,167.534225464,171.557800293,172.748825073,169.020736694,165.896118164,161.730407715,156.511764526,156.244293213,155.667510986,153.294509888,153.067520142,150.48487854
39.826679,159.149581909,161.722015381,165.135620117,170.228240967,174.600540161,177.741744995,179.993392944,181.339797974,181.093322754,178.000106812,178.520370483,178.708847046,175.837738037,170.070251465,167.093902588,163.043563843,161.194335938,159.710525513,158.529998779,157.945327759,157.402389526,155.992431641,158.153427124,159.940948486,164.071990967,169.841171265,169.864089966,167.882766724,166.935455322,163.860946655,158.830505371,153.248962402,155.211471558,160.821090698,166.046539307,165.87562561,164.729553223,166.38520813,167.627319336,167.113708496,162.820617676,161.340927124,161.226226807,162.903182983,164.439331055,164.517608643,165.06652832,166.275817871,169.520751953,172.167648315,167.518844604,163.991638184,161.068435669,160.796356201,159.613021851,160.773406982,163.310653687,164.928695679,163.197067261,164.109085083,164.680679321,165.61100769,169.146392822,170.303741455,171.174285889,170.286773682,168.967758179,167.346755981,164.970291138,162.703659058,162.338912964,163.114898682,164.280944824,164.281967163,162.47253418,155.06552124,154.923538208,158.33757019,160.887481689,162.394378662,161.538589478,161.716064453,161.165740967,155.508682251,147.922317505,143.924987793,156.183776855,163.547012329,168.791259766,173.277374268,172.35635376,167.501617432,162.389816284,160.705001831,155.561264038,153.148925781,153.210647583,152.970825195,149.950195312,148.988388062
39.826094,163.393829346,166.397354126,169.645065308,171.294311523,174.44152832,177.682540894,179.906280518,180.014343262,179.584655762,176.482574463,176.832138062,179.72277832,176.122772217,170.819885254,165.315750122,162.398895264,161.318786621,160.352081299,159.722229004,159.034576416,156.60874939,155.685684204,157.713851929,159.09588623,163.131866455,168.575134277,170.371902466,168.71446228,169.007247925,166.052993774,161.443832397,153.699081421,156.279464722,160.307891846,164.549224854,164.520339966,166.906036377,167.839309692,168.873001099,166.033950806,162.315963745,160.951446533,161.704452515,163.186035156,164.4637146,164.418457031,164.67427063,165.671691895,168.694869995,171.014160156,166.713409424,162.934814453,161.558319092,160.599746704,159.880935669,162.632583618,165.603057861,164.931533813,165.448760986,164.861495972,165.134567261,168.630905151,170.105300903,171.74331665,170.329269409,168.926956177,167.298538208,165.054962158,163.050292969,163.073028564,163.90171814,163.833480835,164.453125,163.652755737,157.060638428,155.569015503,157.930908203,160.509994507,161.22605896,159.300827026,159.20475769,157.679763794,158.485809326,154.607543945,147.344146729,142.553131104,156.152130127,162.666137695,168.078887939,174.419143677,175.757354736,171.221710205,163.771392822,156.608642578,156.674697876,150.400131226,151.739242554,149.967437744,149.829360962,146.847488403
39.825510,164.083068848,169.006515503,172.806228638,176.045440674,176.789459229,177.961624146,178.848739624,177.88041687,176.481811523,174.781112671,172.638916016,174.657714844,171.075180054,166.534942627,162.665405273,160.846572876,160.279251099,160.195297241,160.185333252,160.383285522,156.934341431,155.642654419,157.239074707,158.977157593,162.567382812,167.285415649,170.246643066,168.169342041,165.096054077,163.503631592,154.652297974,154.363525391,158.505401611,162.611679077,164.620407104,164.848724365,166.861862183,167.649993896,169.694641113,164.492233276,161.631851196,160.955581665,162.086746216,163.433181763,163.76348877,163.387878418,163.377868652,165.504043579,168.097640991,170.438461304,166.210525513,163.683273315,161.605224609,160.88092041,161.384628296,162.70022583,165.592071533,166.161361694,167.080780029,165.928512573,166.571060181,169.808547974,171.968170166,172.352279663,171.213516235,170.504547119,167.916717529,164.512069702,164.435745239,167.582138062,165.810333252,164.537490845,163.630523682,161.257095337,156.541366577,158.367050171,160.582000732,160.082504272,157.664199829,157.140762329,156.238265991,154.203567505,152.02897644,147.954452515,142.861709595,144.973312378,153.716339111,160.640060425,166.385192871,169.36541748,167.508499146,161.679214478,158.030853271,155.924057007,151.0834198,148.738723755,149.18611145,147.672897339,147.614746094,144.17578125
39.824925,166.142166138,167.923858643,172.810546875,176.105636597,179.327941895,179.419998169,177.702987671,174.991989136,174.396636963,175.942779541,171.795806885,167.405715942,166.830169678,163.983688354,161.388076782,159.480010986,159.441177368,159.095031738,160.265625,158.879608154,156.467224121,155.508499146,155.762863159,158.03755188,161.87171936,166.095504761,169.725646973,168.417037964,163.166717529,157.061889648,154.984649658,156.86138916,160.396331787,161.622207642,164.25012207,164.053695679,165.905349731,167.039703369,168.658920288,162.429000854,161.210968018,161.664199829,162.33996582,162.610458374,162.995788574,162.82460022,163.041397095,164.556655884,166.68057251,168.79788208,167.170379639,164.234298706,160.70892334,160.922958374,162.542892456,165.42225647,166.215866089,167.363113403,168.343200684,167.666793823,168.703094482,171.98576355,173.13999939,171.92817688,170.125976562,169.078063965,165.941192627,165.773345947,168.931762695,168.986221313,167.66078186,165.178924561,162.001541138,161.938522339,157.536422729,160.082229614,162.012237549,159.027359009,156.562973022,154.845779419,156.395965576,155.417510986,151.316360474,142.084976196,142.710342407,148.593917847,152.941192627,158.993164062,162.056350708,161.959777832,164.130371094,160.612854004,158.460296631,157.209396362,152.985595703,148.201644897,146.620925903,146.586074829,144.520584106,143.550003052
39.824340,169.770233154,172.672088623,174.801956177,176.890472412,178.888244629,177.610839844,175.961914062,174.775512695,171.207687378,172.150726318,170.736785889,166.844436646,164.006072998,161.981887817,160.342834473,159.192184448,158.299545288,157.990859985,157.754699707,157.500946045,156.096557617,155.065658569,155.620239258,157.764694214,161.368408203,165.752182007,169.789993286,167.035614014,164.836685181,159.437149048,154.269714355,157.924301147,160.397354126,160.57194519,162.361694336,163.426025391,166.135620117,168.166442871,168.045227051,161.312820435,160.13243103,161.745315552,162.012802124,162.569152832,162.426300049,162.581253052,163.219528198,164.525665283,167.612503052,170.307647705,167.6512146,162.349609375,160.397247314,162.617614746,164.907577515,167.214309692,168.080368042,169.199249268,169.0,169.911315918,170.953125,172.273208618,174.074935913,171.10559082,170.011169434,168.188766479,166.664718628,168.031692505,171.088638306,175.704315186,168.180084229,162.054199219,161.986312866,159.40032959,160.751525879,162.36000061,161.398971558,159.644134521,159.986877441,154.267852783,152.273666382,155.123886108,153.044403076,144.208572388,141.979217529,143.884597778,152.544387817,159.171051025,160.848052979,157.628036499,159.889556885,158.489395142,160.327972412,155.827194214,153.517440796,150.895339966,148.922531128,144.790206909,143.550003052,143.550003052
39.823756,169.955764771,172.729995728,176.299697876,179.617752075,179.666183472,177.695007324,174.546524048,172.623535156,168.763320923,166.848190308,167.251480103,165.085098267,161.820007324,161.326583862,159.642044067,159.950927734,158.673538208,157.553329468,156.691894531,156.994155884,155.111816406,154.696792603,155.627670288,158.045410156,160.338760376,165.327682495,169.737533569,167.06350708,161.707717896,152.522567749,156.523178101,159.320419312,160.521911621,161.237380981,162.288009644,165.105438232,166.870101929,168.139709473,164.364349365,160.786590576,160.004348755,161.419570923,161.121444702,161.716629028,161.61000061,162.606201172,163.746841431,166.531936646,169.894363403,172.497680664,167.425491333,162.640090942,161.558944702,163.094497681,165.432815552,168.48374939,168.902481079,169.951477051,169.872680664,172.533401489,173.845169067,173.944900513,173.437149048,173.655761719,171.131439209,168.778015137,168.228805542,170.201705933,173.684509277,179.967514038,172.480499268,166.125305176,162.63659668,160.692596436,160.123703003,161.972366333,162.742919922,161.981430054,160.862060547,161.213546753,149.440475464,151.419204712,151.607040405,146.581939697,141.752593994,141.738586426,147.476669312,157.861663818,157.125579834,154.359024048,155.583862305,156.804122925,158.647979736,157.4715271,151.743652344,148.480895996,147.290435791,145.915420532,143.381912231,142.955795288
39.823171,167.61618042,171.512710571,176.282684326,179.674118042,180.341720581,177.566131592,177.147521973,176.119506836,173.071594238,167.672607422,164.045822144,162.99911499,160.789993286,159.72567749,160.255004883,160.163116455,160.039245605,159.50402832,155.369995117,155.460708618,154.900009155,153.837539673,155.597106934,157.452255249,159.925354004,164.242553711,168.434906006,166.5703125,153.023681641,154.163314819,156.829605103,162.393692017,163.32699585,164.290267944,164.376052856,165.840591431,167.289932251,167.808319092,162.158981323,159.92199707,159.301086426,160.249389648,160.507980347,162.519699097,162.947433472,162.77734375,164.220230103,167.276382446,171.715408325,173.435287476,166.870773315,163.626998901,162.361175537,163.380661011,167.149597168,168.516342163,168.624908447,169.33380127,170.671173096,172.988189697,174.859298706,175.329879761,173.525177002,171.664093018,170.579147339,169.48916626,170.391220093,173.308456421,176.868011475,181.110931396,175.887176514,167.583465576,164.662307739,161.824737549,163.922927856,164.366256714,161.377059937,157.999908447,153.671508789,156.920837402,147.362060547,147.121948242,146.837036133,143.0365448,141.475616455,141.275772095,143.365951538,152.809768677,152.439804077,151.040557861,152.605361938,155.339950562,156.918624878,153.971923828,148.990142822,147.85874939,143.866271973,143.134063721,141.408493042,141.581985474
39.822587,166.794464111,170.976577759,175.241821289,179.016082764,180.259994507,177.540802002,177.522750854,177.877746582,175.606796265,168.687927246,164.535491943,162.060272217,159.706924438,158.992721558,158.547912598,158.299987793,160.611190796,157.529647827,156.304046631,155.457870483,154.420410156,154.200958252,155.771789551,157.4402771,159.929092407,162.555938721,165.02381897,164.661743164,152.315567017,154.567687988,156.17098999,160.643112183,161.777664185,163.2240448,165.220230103,166.475463867,167.539489746,165.569396973,161.487091064,159.336074829,159.369995117,160.796188354,160.538406372,161.161239624,161.78012085,162.585571289,165.253250122,168.912597656,173.741241455,174.01159668,166.678726196,164.060958862,163.161148071,163.797744751,167.496948242,167.494247437,167.705459595,168.939971924,171.130523682,173.728408813,176.183746338,175.73147583,172.376785278,171.391921997,170.90045166,170.787216187,172.265075684,174.82119751,177.855438232,182.831176758,177.346618652,171.542648315,166.124771118,166.658538818,166.652069092,160.847396851,159.094406128,153.867446899,150.264465332,147.130279541,145.032608032,143.894271851,143.15322876,142.459518433,141.788726807,140.238525391,141.176437378,151.119247437,147.120681763,147.191864014,150.247253418,152.948287964,153.517990112,151.658782959,146.57019043,143.939437866,141.960250854,139.916778564,141.411636353,142.458679199
39.822002,165.462615967,168.855651855,173.217010498,177.705871582,179.179641724,178.954193115,175.583328247,171.516189575,169.159408569,167.206893921,163.342285156,161.261276245,160.333236694,159.586151123,158.56741333,157.346282959,157.511138916,156.554321289,155.862533569,155.471786499,153.850036621,153.560592651,154.616744995,156.481185913,158.48677063,160.235870361,160.825500488,162.808197021,152.793746948,153.870452881,159.761077881,158.235214233,160.415420532,161.676635742,164.362503052,167.013519287,166.882202148,164.94909668,161.900741577,158.669692993,159.870819092,161.722747803,162.069259644,162.737625122,162.391983032,163.289276123,166.066436768,170.105926514,174.993118286,173.132736206,167.560394287,164.933685303,164.686386108,163.677749634,165.216430664,166.043777466,167.071487427,169.432647705,172.921218872,174.787765503,176.54234314,174.968032837,172.937820435,172.093353271,172.039154053,172.486129761,174.022445679,176.212890625,179.795730591,182.593292236,186.741287231,181.116699219,170.214767456,169.976104736,163.83366394,157.101745605,155.483825684,154.061523438,149.758834839,147.975982666,150.504852295,149.511047363,146.329818726,148.635360718,141.528518677,139.798049927,140.795089722,141.744995117,143.360412598,146.205947876,147.259353638,147.662384033,149.062408447,147.766372681,143.902786255,141.989822388,141.003311157,141.098693848,144.044433594,143.979064941
39.821418,170.010803223,172.548339844,176.110687256,178.018051147,180.610488892,180.89743042,178.211746216,171.085998535,166.466842651,163.141448975,161.872192383,160.100479126,159.236557007,159.338516235,159.19670105,157.606124878,156.261245728,155.403564453,155.272720337,155.175354004,153.742752075,153.078094482,154.482620239,157.30506897,158.402435303,153.986663818,151.067840576,151.944747925,153.016952515,156.972244263,163.247894287,159.925918579,161.241485596,162.541931152,165.279037476,165.862106323,163.165390015,161.626907349,160.55947876,158.601455688,160.035476685,162.039428711,162.803863525,163.674194336,164.41053772,164.945953369,167.858383179,172.35559082,176.815185547,172.436737061,167.224395752,166.343719482,163.876403809,165.485717773,168.163116455,168.192047119,168.733200073,170.133682251,173.253005981,176.586593628,176.76739502,175.103744507,174.565826416,173.05128479,173.745452881,175.238998413,177.057785034,179.227615356,181.037567139,183.04107666,187.194961548,178.975158691,171.055541992,166.563217163,159.982940674,155.089645386,152.079925537,150.075027466,151.029998779,152.919113159,158.761047363,158.853500366,156.346069336,153.829177856,145.098358154,140.397094727,140.518890381,139.303726196,141.275909424,144.833175659,144.675521851,144.865203857,145.570220947,143.703109741,141.853897095,140.684692383,140.673324585,143.157653809,146.537246704,146.265914917
39.820833,170.801040649,175.322143555,177.666732788,179.574462891,181.121551514,181.434448242,178.272262573,170.720993042,166.237548828,161.705810547,160.413665771,159.5262146,158.810348511,158.839935303,160.949172974,157.840011597,155.950012207,154.755432129,154.552444458,154.786834717,154.682891846,152.588287354,155.618408203,158.270782471,150.048309326,152.099243164,151.439483643,155.101486206,159.893798828,161.487060547,163.677444458,161.077453613,162.581314087,163.255767822,166.937530518,166.386245728,162.667999268,160.359863281,160.000259399,157.934265137,160.26776123,161.996444702,162.401870728,162.727996826,165.018844604,167.524536133,170.883529663,174.583206177,174.841812134,170.420730591,167.731628418,167.657821655,164.925476074,165.489700317,167.771743774,169.107971191,169.078323364,172.297790527,174.288986206,177.256011963,178.090270996,177.341369629,174.942321777,174.035980225,174.710754395,177.157897949,180.648406982,183.374511719,183.604476929,185.317337036,183.683334351,177.589004517,170.474685669,166.520095825,166.527404785,157.465805054,153.438018799,154.87588501,161.666168213,163.401992798,170.795608521,172.54725647,172.368789673,158.999053955,147.090103149,144.302261353,143.631072998,140.190582275,139.376800537,140.71446228,143.275497437,141.810119629,143.688995361,141.28678894,140.144119263,140.46144104,144.007873535,145.553665161,148.436416626,151.027694702
39.820249,168.010925293,171.526199341,173.670379639,179.470535278,181.51940918,175.805603027,170.909683228,167.998275757,163.751464844,161.501083374,159.961090088,158.764266968,157.815185547,158.436721802,158.635360718,157.230453491,155.51385498,154.617492676,153.915283203,153.414123535,153.818435669,152.240203857,156.416091919,156.520065308,150.620239258,151.392059326,153.0859375,159.74810791,166.290039062,166.994415283,163.837188721,163.022445679,163.300216675,164.609024048,165.964355469,164.003219604,162.136154175,161.596420288,159.232406616,157.781295776,160.284286499,159.294967651,160.90083313,163.532577515,166.621078491,169.132629395,173.41519165,176.15826416,172.516693115,169.492828369,168.452880859,168.937683105,166.647232056,164.961029053,167.573013306,168.623214722,169.950134277,172.93611145,177.094406128,178.27243042,179.314865112,178.359664917,175.939285278,175.786010742,175.319458008,180.105026245,184.881912231,186.758041382,186.938156128,186.945068359,181.001327515,175.569198608,172.069854736,168.012115479,166.357055664,161.017486572,162.609466553,163.838623047,175.222213745,177.677703857,183.791213989,191.224578857,186.402740479,166.978683472,153.452011108,150.656555176,146.173828125,140.798965454,139.930801392,138.107177734,141.273040771,139.80368042,139.707794189,139.491989136,139.973968506,140.745407104,142.519592285,144.580001831,147.89213562,152.527877808
39.819664,160.582580566,166.574111938,173.375259399,176.760253906,171.508880615,178.363342285,171.270278931,164.898223877,162.230010986,160.152587891,159.024551392,158.230621338,158.298721313,156.711914062,156.787109375,156.665985107,155.781280518,155.240768433,154.469070435,154.220733643,153.033569336,151.724472046,153.499343872,151.393554688,150.788146973,150.625427246,153.838485718,164.16355896,170.636291504,169.585113525,164.836242676,164.545013428,164.071411133,166.314651489,165.169937134,161.937759399,161.264541626,161.419677734,159.414535522,157.497253418,158.891204834,159.537002563,162.382095337,164.023635864,165.649124146,170.49671936,174.915267944,173.996459961,170.836639404,169.901199341,168.967483521,167.359222412,166.075241089,165.719787598,166.504638672,167.769607544,170.297683716,173.348022461,176.282119751,178.986801147,180.129516602,178.367446899,176.659042358,175.840408325,176.575683594,182.385848999,187.374267578,189.61114502,190.163711548,188.532440186,181.289123535,175.409317017,172.633255005,170.149673462,170.200531006,170.680282593,172.371994019,171.602142334,178.688079834,179.686904907,181.979888916,186.71383667,184.606994629,168.38508606,156.337905884,153.010421753,145.692596436,143.374526978,140.150268555,139.094360352,139.0677948,138.395477295,139.705169678,139.841934204,140.531158447,143.158508301,143.658325195,145.496688843,148.75982666,152.60748291
39.819079,162.031845093,165.890197754,175.533172607,180.24710083,181.201538086,176.02911377,167.977767944,163.133453369,161.04083252,159.825927734,159.819335938,158.140899658,157.005950928,156.161804199,155.672805786,155.560134888,155.212753296,155.63999939,155.351486206,154.773330688,153.73538208,153.095840454,150.733200073,150.480010986,149.995315552,150.472763062,158.350357056,165.6459198,171.607345581,171.632553101,167.206344604,166.582870483,165.379653931,167.215652466,166.144927979,162.255813599,160.386993408,159.651016235,158.613235474,156.719039917,158.288864136,160.254898071,162.713012695,166.229995728,167.592285156,170.575469971,174.855560303,172.70262146,169.950363159,168.783309937,167.959030151,167.069229126,166.795837402,166.831680298,166.941390991,167.831085205,169.689559937,174.082611084,175.760360718,177.618927002,178.959518433,178.495681763,177.22088623,176.547607422,177.14074707,184.155532837,188.276290894,190.751266479,190.90574646,183.920730591,178.055679321,172.470550537,172.858200073,167.560119629,166.330413818,171.378341675,176.039306641,170.7552948,171.530990601,171.808685303,169.627166748,172.529968262,173.14201355,163.363555908,155.11579895,148.091964722,145.912414551,146.418304443,140.522903442,139.128417969,139.549499512,142.30116272,143.866790771,144.102478027,142.266662598,145.837692261,149.988845825,148.551773071,153.653305054,154.021835327
39.818495,167.961502075,175.077331543,178.22215271,179.546951294,177.967727661,170.9793396,164.973999023,161.559585571,159.927810669,158.761978149,158.684341431,159.582702637,158.647018433,156.278274536,155.137771606,154.715637207,154.620681763,155.507034302,156.209152222,154.725067139,155.379989624,154.508270264,151.220199585,149.771881104,149.514389038,151.581542969,159.764297485,166.249526978,172.53012085,173.779022217,170.156799316,167.442214966,167.017349243,167.129699707,163.141708374,161.187789917,160.895843506,160.505218506,158.795288086,156.696212769,159.368118286,161.428359985,163.127380371,165.364028931,169.090774536,172.332046509,174.705627441,172.122817993,169.897018433,168.382507324,167.554107666,168.514389038,167.537521362,167.928588867,166.921142578,168.857452393,170.73046875,173.523452759,176.853149414,177.980819702,178.700698853,178.915756226,177.067108154,177.262573242,181.346939087,185.144271851,188.416137695,190.861602783,190.006057739,181.930541992,176.062789917,174.988769531,168.937698364,164.993362427,163.465835571,164.818267822,167.905105591,165.586166382,163.99836731,164.48008728,165.419219971,166.289413452,166.981872559,160.976455688,151.97454834,149.495620728,148.295944214,146.649993896,143.383499146,138.003753662,139.34185791,141.553100586,144.964385986,146.422180176,146.336288452,148.875900269,155.22052002,151.907455444,161.382583618,159.3046875
39.817910,167.991760254,176.105911255,178.350631714,177.431808472,172.500564575,166.143234253,162.322021484,160.621673584,159.254608154,157.778427124,157.206604004,159.201416016,156.942321777,156.286254883,154.773406982,154.287811279,154.461776733,155.738113403,156.484390259,156.396575928,156.842437744,154.278518677,151.807495117,149.054855347,148.652374268,152.73928833,159.840087891,166.560775757,173.680526733,177.275115967,172.427246094,168.891448975,168.825134277,168.061721802,163.231750488,160.541702271,159.412475586,158.521575928,157.390151978,157.326370239,158.667678833,160.350006104,162.806304932,165.42791748,170.69442749,173.406021118,172.07749939,170.368667603,169.574768066,168.395584106,168.728973389,169.386764526,168.097595215,168.986251831,167.665679932,168.897567749,171.138076782,173.564224243,176.595809937,177.464599609,178.674865723,180.260940552,179.328170776,177.885513306,181.869979858,187.29019165,189.681610107,190.406661987,186.028900146,178.366653442,176.890808105,174.783309937,168.62953186,163.132995605,158.952438354,160.306167603,160.740203857,160.385345459,158.212219238,162.516342163,165.20703125,161.530349731,165.856109619,160.414337158,150.889923096,150.458892822,144.365356445,141.994232178,140.030441284,137.593109131,139.510971069,142.811141968,143.150527954,144.071228027,144.740890503,150.257263184,154.824081421,156.230545044,161.636108398,163.108322144
39.817326,166.967483521,173.801330566,175.056167603,172.080718994,167.609130859,163.050094604,161.294998169,159.360946655,158.8046875,158.443695068,156.171173096,156.363220215,155.433929443,155.42918396,154.177749634,153.84815979,154.882720947,156.220993042,157.138076782,158.677215576,156.920196533,155.718139648,150.625991821,149.055007935,149.961883545,153.732635498,159.154571533,166.291824341,173.758270264,178.665222168,173.647399902,169.709991455,167.100570679,166.89201355,164.324157715,160.504684448,158.45401001,157.970001221,156.364227295,158.190628052,158.596282959,159.286727905,161.613677979,165.865203857,170.696624756,171.468734741,168.98336792,169.643753052,169.074005127,169.719573975,169.830215454,169.629119873,169.156234741,170.391555786,167.919876099,169.783828735,172.467437744,175.20741272,175.725326538,177.293136597,178.533996582,180.176742554,181.300949097,180.396072388,180.816665649,185.042816162,188.548690796,185.913162231,180.543945312,176.671981812,174.728683472,175.334899902,168.41192627,161.173538208,157.995025635,157.377212524,156.59703064,159.287231445,155.977676392,163.374176025,161.546005249,157.614578247,162.396728516,155.184539795,155.626403809,158.528015137,150.166915894,147.268127441,141.582489014,137.606414795,139.153167725,141.069244385,142.397155762,141.87512207,144.901184082,149.091125488,154.80557251,162.155670166,162.419998169,166.766159058
39.816741,162.963317871,169.769348145,171.392272949,166.126068115,163.021697998,160.845428467,159.959640503,158.898132324,157.891708374,157.127334595,156.39100647,156.589126587,154.208099365,153.842132568,153.355789185,153.60496521,155.097427368,156.218597412,157.757049561,159.02923584,158.667602539,156.611572266,148.152572632,149.382553101,150.429992676,156.219802856,162.064941406,166.955230713,173.242874146,177.711044312,174.825653076,169.667388916,164.774749756,162.738555908,162.124603271,159.286437988,157.970001221,157.179290771,156.590133667,159.094909668,160.993331909,161.659759521,162.197540283,163.169677734,167.09161377,168.329772949,167.843826294,169.937469482,169.690002441,170.501937866,170.750106812,169.751937866,170.511123657,170.657562256,168.576538086,171.205810547,174.067047119,176.503860474,176.979568481,178.43560791,179.379257202,180.009613037,182.979354858,185.403427124,182.516601562,183.673049927,181.469345093,178.879455566,177.088317871,175.69883728,173.569580078,172.598327637,165.339447021,162.573638916,157.736419678,155.146591187,153.74621582,154.161727905,153.913024902,157.761428833,161.156112671,155.969787598,156.863098145,159.144760132,164.205657959,159.747894287,148.145767212,143.632583618,139.666641235,137.48374939,139.081130981,140.030654907,140.539825439,142.17565918,145.516540527,151.219894409,158.895751953,161.390579224,164.277114868,170.402160645
39.816157,163.017578125,168.093002319,169.246414185,163.554443359,161.188980103,159.366088867,158.936309814,159.45123291,158.770523071,159.406890869,156.504119873,154.601425171,153.428955078,153.14881897,152.831604004,154.267364502,155.057357788,156.409378052,157.719787598,159.244476318,158.984313965,157.129837036,147.949691772,149.760101318,151.351745605,156.40675354,161.233703613,165.696090698,172.030212402,176.113357544,174.721420288,169.600799561,166.481552124,163.133880615,158.948501587,158.503189087,156.049163818,155.975967407,158.359283447,159.944915771,162.279266357,165.153762817,166.996536255,166.678375244,165.263000488,166.85736084,167.594818115,170.233154297,170.830841064,170.743423462,171.334594727,170.590148926,171.491317749,170.069839478,169.359176636,171.800567627,174.338882446,176.755996704,177.262390137,177.987640381,178.204101562,180.091033936,184.511703491,184.381439209,183.603363037,185.637512207,179.517471313,176.279373169,173.989303589,172.900863647,173.416549683,171.186157227,167.676727295,163.500747681,159.01399231,158.102615356,155.070999146,151.799942017,151.479293823,153.00302124,157.396865845,154.391311646,152.5,159.915298462,163.553649902,159.775482178,149.598602295,144.531341553,143.452926636,137.463439941,139.28414917,139.895385742,140.981307983,143.22088623,147.28263855,153.498260498,162.580673218,165.984466553,166.36416626,169.753204346
39.815572,161.087554932,165.898529053,164.380935669,161.210571289,159.132247925,158.559967041,157.780181885,158.010818481,159.749649048,158.269592285,156.189300537,154.663528442,152.922286987,151.826156616,153.261657715,155.487991333,156.844909668,158.862838745,159.926452637,160.081604004,156.592666626,153.180969238,147.806472778,149.394866943,152.91569519,155.46913147,158.22618103,163.219406128,169.409515381,173.912246704,172.966415405,168.338012695,164.06842041,160.551254272,158.860641479,156.943618774,155.511505127,155.500427246,158.899383545,160.826004028,164.1144104,167.875549316,171.102310181,168.89100647,166.430664062,166.550109863,167.268997192,168.686035156,170.757080078,170.344009399,171.512084961,171.610412598,172.070739746,170.169998169,170.208465576,171.063186646,172.610748291,174.276657104,175.564147949,177.23638916,178.128067017,180.551986694,184.542068481,184.789367676,180.934005737,182.200424194,178.933609009,174.649017334,172.311737061,168.875427246,171.191329956,173.381637573,170.602081299,165.055175781,161.661331177,163.682830811,159.900894165,156.925003052,150.512283325,150.449630737,156.033996582,149.960571289,152.199996948,157.638473511,158.729171753,155.979431152,147.727920532,141.236419678,139.098876953,138.819366455,140.162460327,140.20211792,141.641723633,146.121231079,150.033676147,156.74432373,165.100494385,172.132095337,168.613418579,169.752487183
39.814988,165.424713135,165.376663208,161.637893677,159.995864868,158.188842773,157.385726929,156.491699219,158.211227417,159.073425293,156.539749146,154.08531189,152.837524414,152.191009521,152.608383179,154.078414917,155.444778442,158.34715271,160.050674438,161.407531738,159.411987305,157.526672363,150.851196289,147.558868408,150.412094116,153.41242981,158.695556641,163.341156006,165.529373169,167.483718872,171.849868774,171.944549561,165.800338745,160.669296265,158.208862305,157.727706909,155.973510742,155.163513184,158.100997925,159.538330078,161.994003296,166.537155151,171.468444824,173.792007446,168.338882446,167.562408447,168.350524902,168.238479614,168.859237671,169.497055054,170.394821167,172.166137695,172.423629761,172.522872925,170.492370605,170.814468384,172.340011597,173.883758545,175.02746582,176.84197998,177.149108887,178.413635254,181.338394165,184.058425903,183.36328125,179.538711548,177.305557251,175.414382935,173.220840454,171.600387573,166.51109314,167.611038208,170.505828857,165.471343994,163.592147827,162.158615112,162.732666016,161.780990601,158.770004272,152.797637939,148.261169434,148.566925049,147.485275269,153.130264282,155.963256836,157.773269653,148.3462677,147.674102783,140.208129883,138.623809814,138.822738647,140.116546631,140.828094482,142.584335327,148.260162354,155.254928589,161.55116272,167.181716919,171.589996338,173.282516479,173.439025879
39.814403,166.33656311,161.527374268,160.206222534,158.643127441,157.089508057,155.87210083,155.730010986,158.552703857,156.500778198,156.303619385,153.401031494,151.886764526,152.221954346,153.402389526,155.07472229,156.048706055,158.509475708,160.632507324,160.797058105,159.708343506,156.088821411,147.736846924,148.895950317,151.771972656,155.609100342,160.831329346,164.313140869,163.288909912,164.959060669,169.263763428,169.733047485,163.891845703,159.770751953,156.869995117,155.681289673,154.757598877,155.918334961,158.465591431,159.811782837,163.589675903,169.241531372,173.816467285,173.802566528,170.41973877,168.902572632,170.378005981,169.203857422,170.742553711,171.388656616,170.371246338,171.72644043,172.995513916,172.554916382,171.208694458,171.951980591,173.262298584,175.283676147,176.547317505,177.241256714,178.326263428,179.09854126,181.446868896,184.157501221,183.883300781,178.360137939,174.285339355,171.767456055,170.255813599,169.765686035,166.66456604,163.784500122,168.053710938,164.610168457,160.889358521,161.918334961,159.833831787,158.274002075,155.907958984,155.25617981,149.292999268,146.019729614,145.485046387,149.391830444,149.029769897,151.613098145,142.891159058,141.260665894,139.222229004,138.888565063,138.724258423,142.486953735,145.246017456,146.379623413,147.789413452,157.875961304,166.155227661,170.357086182,173.234771729,178.34979248,179.409332275
39.813818,161.146652222,159.574478149,157.601638794,157.861022949,157.257629395,155.386688232,154.478118896,155.617080688,155.028793335,154.21836853,152.077728271,151.461090088,152.611633301,154.348114014,155.600372314,158.075820923,160.65826416,161.111495972,159.370803833,155.790054321,147.020370483,148.580001831,150.232940674,153.465759277,158.250686646,161.990005493,164.320541382,160.110565186,160.673599243,164.984985352,167.465484619,162.838150024,159.443649292,157.534866333,155.158660889,154.545974731,157.188980103,159.598846436,162.012237549,163.901245117,169.528396606,173.963378906,175.02784729,170.931533813,170.679870605,172.045120239,170.024475098,172.523880005,172.304977417,171.388946533,172.08543396,173.72026062,173.230712891,172.081436157,173.136123657,174.217697144,175.337005615,176.576202393,176.362426758,177.134765625,179.545379639,182.110580444,184.294906616,181.947921753,176.145004272,171.901550293,168.758590698,166.766418457,166.687042236,165.142852783,160.733596802,164.893722534,163.750442505,159.350494385,160.514694214,160.608337402,158.052886963,155.70098877,155.13684082,151.576263428,149.250167847,144.621154785,143.161102295,143.194793701,143.03578186,140.950195312,139.946060181,138.968048096,138.904418945,138.474380493,137.915679932,141.234634399,145.680862427,148.255050659,156.99432373,168.109176636,168.508255005,172.657455444,179.495574951,178.457962036
39.813234,158.110397339,157.330718994,155.908325195,156.503067017,156.981994629,157.003921509,153.898040771,153.073226929,153.4584198,152.056777954,151.142929077,151.43649292,152.92539978,154.705047607,157.44430542,159.119995117,160.610855103,158.582962036,157.040603638,147.148773193,147.872665405,149.21774292,152.433319092,155.454803467,158.081832886,161.179275513,162.722244263,158.225784302,157.464096069,162.078109741,166.394241333,161.692733765,156.893783569,155.174072266,154.012741089,155.336517334,157.623077393,160.824630737,164.335144043,167.773117065,171.23651123,172.843795776,174.513198853,171.614898682,173.14100647,173.000595093,171.736846924,173.577758789,173.244873047,172.223358154,173.064147949,174.277191162,173.714294434,173.529922485,174.266983032,174.661895752,175.656646729,175.989761353,175.020446777,176.739761353,180.181015015,182.466461182,182.720245361,181.395874023,177.664367676,171.20854187,169.789871216,167.648025513,165.588119507,164.371337891,160.326004028,157.675704956,159.02116394,159.524642944,157.776062012,158.223312378,157.355377197,156.374099731,155.931716919,153.320083618,151.372207642,147.15171814,144.321594238,142.281417847,141.345428467,140.684173584,139.830886841,141.254364014,141.210083008,138.462997437,138.781951904,140.153442383,145.373886108,149.311141968,153.395492554,158.26499939,164.317993164,168.526580811,170.83392334,171.849578857
39.812649,155.836364746,155.187210083,154.310058594,156.062286377,156.293960571,157.109649658,154.322021484,152.457229614,151.429016113,151.030853271,150.776657104,152.207321167,153.788269043,157.000793457,157.899856567,159.394210815,159.197479248,157.138214111,147.929885864,147.474411011,148.514312744,151.323791504,154.487747192,157.713760376,161.355117798,162.164840698,159.079803467,155.161315918,155.088424683,159.427062988,163.870559692,159.965759277,154.573699951,153.92930603,154.578414917,157.132507324,159.37147522,162.628387451,166.384887695,170.167205811,171.82170105,170.222946167,172.785217285,170.921951294,174.097717285,172.703781128,173.277282715,174.228820801,174.477264404,173.990219116,174.777206421,174.95930481,173.947494507,174.669830322,175.701141357,176.442047119,176.134979248,174.215499878,173.957138062,177.133804321,178.394805908,181.66506958,178.197601318,176.544906616,175.433120728,173.742141724,172.841125488,169.294372559,167.235778809,165.556488037,161.638214111,154.278091431,152.557220459,158.469238281,156.622512817,155.838897705,155.516998291,157.573654175,156.68460083,152.847930908,149.743560791,147.67010498,145.440048218,143.039627075,142.669891357,144.089553833,141.393920898,147.213424683,143.610534668,144.537094116,138.296661377,146.34274292,153.129364014,158.069137573,161.051330566,160.849136353,162.21762085,165.178543091,167.120849609,169.28604126
39.812065,153.923828125,154.114089966,152.902908325,154.021774292,156.941543579,155.39125061,154.599075317,152.381912231,150.462692261,150.102798462,151.135848999,152.946060181,155.649871826,157.690002441,160.136428833,159.981521606,157.422576904,155.726272583,146.374420166,147.697631836,149.936828613,153.264480591,155.77293396,159.401000977,161.183578491,160.085174561,154.343933105,152.673583984,153.270004272,155.733551025,157.836257935,154.304016113,153.300491333,153.886535645,155.003189087,156.263183594,158.817153931,162.14175415,166.206512451,171.374176025,170.719680786,167.472595215,168.894882202,170.549575806,174.550308228,173.51272583,172.938751221,173.567733765,175.297149658,175.070236206,175.532775879,174.157516479,173.146682739,173.882369995,175.888305664,177.22618103,175.441940308,172.989700317,173.708511353,175.097671509,176.083984375,178.029037476,177.909194946,174.673049927,172.363204956,173.808914185,170.678909302,169.662734985,167.158203125,163.071121216,159.581207275,156.205291748,151.825897217,152.800094604,155.707489014,154.808837891,152.860351562,154.354797363,156.681182861,153.158782959,151.474975586,149.519821167,146.335723877,144.797988892,146.094833374,147.584030151,144.546310425,145.569335938,141.769714355,138.296066284,139.773239136,151.272521973,160.785690308,166.754730225,171.506668091,168.130508423,164.572189331,165.524551392,167.422225952,169.328384399
39.811480,152.963790894,153.130249023,151.845870972,154.300582886,155.19744873,153.825302124,153.064147949,152.524490356,150.329223633,149.787628174,151.437133789,153.570144653,157.542160034,159.339996338,161.153274536,159.088882446,156.897415161,148.222000122,147.122512817,148.334915161,152.604980469,154.752700806,158.089538574,159.457855225,159.689453125,154.686080933,152.063140869,151.132461548,151.663391113,150.457229614,151.5625,152.970169067,153.741912842,154.441589355,155.219421387,155.97845459,156.730148315,157.97895813,164.041732788,166.808258057,167.703384399,164.881896973,166.579528809,171.201873779,173.656387329,172.955795288,171.514938354,173.301712036,175.281677246,175.709457397,175.210083008,173.588409424,172.050643921,172.767623901,175.129486084,176.462860107,172.135055542,171.817718506,173.252532959,172.861724854,174.687438965,177.034667969,176.077835083,173.911407471,173.111694336,169.056259155,167.735702515,167.204696655,165.098754883,162.569839478,159.034667969,158.298660278,150.959915161,151.300674438,153.937957764,155.069992065,151.127288818,150.818237305,152.410583496,150.708618164,148.956985474,149.426223755,149.596038818,147.961486816,146.835800171,145.799606323,143.457855225,143.744216919,138.685058594,138.290847778,143.748641968,154.756912231,167.182571411,169.543518066,173.549240112,170.852737427,167.147079468,167.239379883,168.870376587,170.561141968
39.810896,152.633346558,150.886917114,153.002258301,155.597564697,154.519927979,152.425857544,151.664428711,149.942276001,148.911987305,150.448394775,151.642364502,153.695846558,156.370880127,158.969787598,159.021820068,156.895080566,154.622619629,145.720932007,147.376754761,150.243026733,153.304550171,156.809677124,159.179779053,158.569580078,155.252700806,152.457443237,150.755020142,149.802825928,149.22013855,150.256668091,153.339813232,160.4009552,157.738174438,156.609603882,156.313156128,157.090484619,157.370056152,158.080673218,159.823776245,162.399734497,165.055496216,163.429367065,165.936676025,169.609664917,171.450546265,171.677947998,171.301132202,173.798217773,175.370010376,176.024124146,174.524307251,173.106948853,171.941101074,171.182907104,173.062728882,173.668029785,169.995315552,170.568359375,171.83001709,172.009414673,174.337493896,176.058410645,175.569076538,172.692077637,170.382202148,167.971862793,165.446563721,164.114929199,162.544403076,158.566665649,157.541275024,155.321487427,151.832885742,149.85534668,154.309310913,153.209457397,151.115646362,147.979171753,148.152999878,148.809326172,146.460372925,147.191482544,147.709747314,145.732955933,145.806228638,144.83531189,141.915863037,141.608261108,138.285736084,136.82963562,144.305374146,153.978439331,165.611801147,166.518096924,168.100509644,168.089874268,168.943237305,169.872177124,171.2134552,172.585739136
39.810311,150.556304932,150.628890991,154.936447144,155.169189453,153.926971436,151.541213989,149.548431396,148.993240356,148.861343384,150.62387085,152.359481812,154.0625,155.774414062,157.709350586,156.225830078,153.115844727,150.36706543,146.329452515,147.779571533,150.281387329,154.169708252,157.006469727,158.689987183,156.803665161,152.528686523,150.418762207,149.715011597,148.692077637,148.716308594,151.005050659,157.248703003,162.707641602,161.594100952,159.499099731,157.741165161,158.044891357,159.955245972,160.97883606,159.550750732,160.348999023,161.723388672,164.22428894,167.595321655,171.026901245,171.718154907,170.337905884,171.278869629,173.16204834,175.18145752,175.892089844,173.843551636,173.583267212,172.812225342,170.547439575,170.700759888,169.391494751,170.086471558,169.730010986,170.110427856,171.401535034,174.834564209,174.843780518,174.504241943,173.997238159,172.332778931,169.222183228,164.905410767,162.521835327,159.277191162,155.982131958,154.079040527,152.816360474,150.793701172,148.124420166,149.929916382,150.41583252,148.837036133,147.685943604,145.320922852,146.704666138,145.302047729,143.243835449,144.84727478,144.400268555,143.652389526,143.808853149,141.802749634,138.499221802,138.678985596,138.222183228,138.529266357,146.690032959,159.82522583,163.963119507,163.453033447,164.327255249,167.354049683,170.365982056,173.074371338,174.956314087
39.809726,149.323699951,153.218673706,154.783676147,154.779495239,152.269104004,149.59979248,148.371749878,147.903900146,150.713973999,152.436325073,154.026519775,154.515380859,156.474746704,157.617477417,156.317443848,153.598602295,149.244094849,146.468780518,147.557479858,151.371917725,154.822891235,157.516326904,154.898376465,152.750213623,152.016036987,149.353378296,148.299194336,147.504150391,148.974075317,152.968795776,157.410293579,162.454544067,165.63999939,161.908493042,158.403533936,159.449783325,161.859527588,163.795761108,161.986358643,160.570159912,163.506668091,166.270050049,170.157516479,171.886322021,170.828674316,169.997161865,172.792404175,173.661376953,175.873825073,175.281982422,173.287643433,172.339996338,171.862030029,170.140777588,168.625808716,168.090713501,168.799194336,168.267044067,168.615066528,171.401382446,173.418899536,172.74546814,173.955078125,174.354431152,171.71383667,169.921844482,166.545135498,165.039550781,163.164871216,159.28352356,156.836120605,159.10836792,156.20741272,148.680236816,146.261154175,147.861083984,146.613998413,147.011001587,143.179260254,144.921829224,142.819793701,141.725280762,141.93397522,141.894882202,142.787994385,139.870407104,138.627655029,138.231063843,137.939041138,138.741622925,136.460525513,145.589035034,157.960144043,160.90574646,158.12046814,161.965911865,165.658966064,169.129470825,175.520889282,178.676528931
39.809142,152.391906738,153.807998657,153.449951172,152.355758667,149.380630493,147.995437622,147.369186401,150.034515381,151.698165894,154.210693359,157.250457764,157.465057373,156.842254639,158.403274536,158.051147461,156.478607178,153.545974731,145.742614746,147.101928711,151.107757568,153.504455566,155.746536255,152.176696777,150.944076538,149.35168457,148.131118774,146.37387085,148.021774292,150.961151123,153.921524048,157.216186523,162.401000977,167.840118408,164.303588867,159.403106689,160.747268677,163.089904785,165.483261108,164.421600342,161.491226196,163.690475464,167.409103394,171.541870117,170.303527832,169.035461426,170.670822144,173.156021118,175.355773926,176.264038086,174.721298218,173.861160278,172.91267395,170.826019287,169.578552246,168.193771362,166.974945068,167.007324219,167.111450195,167.518066406,170.019195557,172.281570435,170.839706421,173.300521851,173.000473022,170.923614502,168.253677368,165.939941406,165.104995728,164.740768433,163.241714478,159.710922241,158.314743042,154.0677948,154.603729248,150.013000488,147.913711548,144.276107788,142.963607788,143.125640869,142.443161011,141.862060547,140.729660034,140.472015381,141.919784546,140.098251343,139.529006958,138.917938232,139.459014893,142.804351807,142.494445801,134.354904175,138.900665283,149.807128906,152.582122803,154.681945801,158.77835083,161.568832397,166.451507568,176.033599854,180.754074097
39.808557,153.826538086,153.794464111,151.338775635,149.417816162,147.800491333,145.998077393,148.861083984,150.992248535,153.707489014,156.539871216,160.225769043,158.463806152,158.100891113,159.082550049,157.48298645,153.664611816,150.760559082,145.824432373,145.835845947,151.016677856,153.294067383,151.285415649,149.881790161,148.51651001,148.20161438,146.17024231,147.483276367,149.752975464,153.159561157,154.878173828,157.195617676,162.021759033,167.176742554,166.130737305,161.343292236,161.355606079,164.106735229,166.594482422,166.182128906,163.86000061,163.495025635,167.889038086,172.218902588,169.614456177,168.747497559,171.229995728,173.894073486,176.556610107,177.364883423,175.984924316,175.615081787,173.549362183,171.214630127,171.098937988,169.213439941,167.630844116,165.97869873,166.327972412,167.488769531,170.182312012,169.557647705,170.737335205,172.569351196,170.99079895,170.898742676,168.808395386,166.470001221,162.875198364,164.081695557,162.621154785,159.214080811,155.982162476,154.35093689,154.368225098,152.939575195,152.810394287,148.266845703,144.021438599,144.056167603,143.484298706,142.987930298,143.989135742,144.24331665,143.534164429,144.403915405,146.439071655,141.307052612,144.846176147,149.469467163,153.139480591,134.241149902,135.266677856,140.771026611,145.575149536,151.515335083,156.772415161,159.926681519,164.721160889,173.659881592,183.342132568
39.807973,153.407867432,153.493179321,150.0078125,147.663574219,146.68309021,147.690994263,151.360107422,153.896438599,156.565124512,159.983917236,161.46005249,159.200622559,159.326766968,158.787414551,157.650650024,155.123397827,150.674957275,146.278793335,144.541763306,149.563491821,150.267852783,149.879898071,148.556274414,147.234344482,146.198272705,146.727294922,149.332305908,152.677261353,154.188446045,155.025482178,156.460037231,160.992584229,165.650924683,168.235137939,164.723556519,162.754318237,164.007980347,167.24559021,167.795547485,165.205749512,163.505935669,167.883895874,167.12336731,167.139328003,168.575576782,171.286270142,174.14289856,177.282012939,178.152206421,177.41645813,174.87651062,172.427947998,171.455734253,171.116546631,169.035095215,167.172439575,165.212524414,165.853164673,168.863815308,168.045196533,168.210006714,171.432846069,172.524612427,169.919891357,168.661071777,168.020996094,166.013122559,162.983657837,161.119934082,158.733779907,157.013412476,154.299102783,154.147369385,152.418304443,151.01109314,149.234436035,148.270339966,147.03352356,148.4584198,145.014389038,148.827041626,155.417358398,158.175537109,152.624725342,149.512145996,146.68862915,145.633270264,149.7396698,155.842422485,156.358535767,147.233901978,132.141845703,140.424804688,147.69758606,154.297790527,158.048721313,159.244094849,166.599411011,168.765411377,171.904663086
39.807388,152.737640381,150.620895386,147.553894043,146.10105896,147.068557739,150.248779297,152.412521362,156.249603271,160.358795166,162.88343811,161.051376343,159.41960144,158.874694824,157.028717041,156.661972046,155.07598877,152.448196411,146.454376221,145.511291504,144.731964111,147.843078613,149.088989258,147.48890686,145.6171875,146.350830078,149.421310425,152.511459351,153.489624023,155.55456543,157.874649048,156.60987854,158.995727539,163.77116394,168.694046021,168.180419922,163.902908325,164.649291992,167.153167725,169.609909058,166.047302246,163.291183472,164.717575073,165.843475342,168.070648193,169.60319519,171.533935547,174.986099243,177.669998169,178.948104858,176.381713867,172.976287842,170.842895508,170.338394165,170.202972412,169.717529297,168.246673584,164.457626343,165.033477783,166.449737549,166.68057251,168.670181274,171.747894287,171.817626953,169.246078491,166.302429199,165.896286011,164.696182251,162.758590698,160.65296936,159.271286011,155.555099487,157.220840454,157.566650391,154.798721313,152.64201355,153.137008667,153.730392456,151.683624268,150.93145752,147.108581543,156.663223267,166.029525757,162.493392944,159.714736938,150.56477356,147.34072876,147.543701172,151.200744629,157.621582031,158.880889893,146.64465332,131.550064087,140.985015869,152.386230469,152.781204224,152.032150269,154.333786011,161.330551147,160.437835693,157.073989868
39.806804,150.347290039,147.329849243,145.713272095,145.4815979,150.238052368,151.448776245,153.127120972,156.545776367,160.223892212,162.743591309,159.557144165,158.282211304,157.080596924,155.858917236,155.596755981,153.540634155,153.792282104,146.130722046,145.651199341,143.434921265,146.78994751,147.034240723,146.540786743,145.188827515,148.038589478,151.307006836,152.528167725,153.574508667,155.014892578,154.359130859,155.673919678,159.055633545,164.657806396,170.043045044,170.984527588,166.380432129,166.029937744,168.486099243,170.16734314,166.879180908,164.888183594,165.247680664,166.459640503,169.444046021,171.737747192,172.738464355,176.107803345,178.96875,179.279144287,175.102508545,171.803573608,169.841796875,168.480209351,168.610977173,168.484512329,165.412658691,162.960083008,164.380065918,165.184249878,166.582748413,168.66998291,170.552932739,172.447143555,170.310317993,168.481536865,166.389755249,163.692901611,160.907531738,159.75718689,158.60055542,162.28817749,160.447052002,158.04309082,156.113876343,155.847640991,159.241394043,159.373580933,153.98991394,150.005706787,148.919067383,153.860595703,162.781616211,167.45022583,164.852416992,154.34197998,152.796829224,149.610397339,146.934188843,152.928924561,152.833221436,144.702407837,130.673080444,137.146240234,151.102661133,149.711532593,143.900360107,147.378097534,156.169830322,155.239959717,146.72744751
39.806219,147.091964722,145.682098389,144.838043213,148.014328003,150.742385864,153.390289307,156.646011353,160.144699097,162.372146606,160.782608032,158.583190918,157.235855103,155.580841064,153.081893921,152.53364563,154.065673828,148.395904541,146.273071289,145.20892334,144.709472656,145.354934692,145.931884766,144.717636108,145.638900757,148.046844482,147.852600098,150.115585327,151.647064209,152.163833618,153.783111572,157.021942139,159.505599976,165.488891602,171.318618774,173.239990234,168.387145996,167.514465332,169.566329956,170.132705688,167.11000061,165.153778076,166.057006836,167.846801758,169.122146606,171.859405518,174.484985352,176.977920532,178.729171753,177.412689209,173.084396362,170.805084229,170.037246704,168.173141479,166.899780273,167.233413696,164.194915771,162.270004272,165.205871582,166.320480347,167.694824219,168.722915649,170.009765625,171.767807007,170.427078247,167.925598145,165.752319336,163.664337158,163.342025757,162.759658813,160.257415771,161.188049316,160.436645508,159.096237183,157.673843384,159.638534546,162.507110596,159.794326782,154.393890381,151.689407349,150.332733154,154.243087769,163.033004761,173.503860474,170.558609009,160.398986816,156.299255371,154.477416992,152.592483521,147.070266724,141.656082153,143.460037231,138.027954102,129.708282471,138.502456665,142.534118652,137.470001221,141.353897095,148.26965332,153.222076416,141.835906982
39.805635,145.967010498,144.997344971,146.602127075,149.751708984,151.023971558,153.425674438,157.261978149,160.800674438,162.398681641,158.663803101,156.757797241,156.33984375,155.751068115,154.635742188,151.215545654,148.662704468,147.317886353,145.900878906,145.0440979,144.293029785,144.782577515,144.780380249,144.244537354,149.006530762,151.509674072,152.169036865,151.749435425,151.648147583,152.433731079,154.655502319,156.563232422,160.237701416,166.137161255,171.257736206,174.773529053,171.027877808,169.50050354,171.665267944,171.60609436,168.079833984,165.783843994,166.437316895,169.925064087,170.912948608,171.911880493,175.404937744,177.690155029,177.246994019,174.483596802,171.371017456,169.083084106,167.867477417,167.965179443,165.207366943,166.506851196,163.624603271,161.439819336,162.301651001,164.359069824,166.321380615,168.90512085,170.329803467,171.812530518,171.022109985,167.862182617,166.33732605,166.988708496,165.229598999,163.108276367,163.368911743,163.923019409,162.326263428,160.3722229,159.715652466,163.772994995,165.873336792,161.335922241,157.145446777,155.58984375,151.524169922,154.531738281,160.976333618,171.459732056,168.010726929,161.563812256,156.820007324,155.540969849,153.479598999,148.971298218,141.805938721,133.726654053,135.281188965,129.60369873,130.236618042,134.248596191,133.5415802,135.404815674,142.260437012,149.399642944,136.259933472
39.805050,145.132705688,143.750259399,147.664276123,149.799942017,152.919876099,156.41015625,160.271560669,162.039230347,160.003448486,156.727020264,156.271957397,153.710083008,153.665863037,154.889022827,152.534912109,148.743515015,148.268814087,146.405944824,144.936889648,144.39239502,143.304321289,143.870178223,145.3230896,149.26260376,152.128723145,154.347335815,154.122589111,153.639144897,154.169509888,154.577056885,157.32484436,160.892562866,165.821334839,170.146453857,174.464157104,173.412139893,171.727142334,172.71774292,172.103103638,170.150192261,167.510070801,166.970214844,170.284866333,172.790664673,173.154220581,176.249343872,176.719207764,175.621032715,172.584030151,170.541854858,169.291152954,167.601394653,165.025497437,164.594055176,164.342651367,163.790023804,160.760787964,162.034988403,164.750701904,166.818771362,168.193359375,169.884506226,172.341445923,171.04234314,169.38079834,170.974975586,168.55581665,165.382476807,165.143798828,167.123657227,166.357589722,164.99937439,161.962432861,161.35736084,165.717285156,170.062820435,163.243011475,160.426101685,157.360107422,153.141693115,154.695266724,158.20010376,162.224624634,161.836517334,159.28414917,157.466461182,157.621994019,152.041931152,147.513305664,140.460617065,138.502990723,134.387298584,130.903564453,128.336700439,130.24281311,132.673660278,135.732177734,137.467926025,141.189193726,134.458694458
39.804465,143.56590271,145.011886597,147.143081665,149.409072876,153.514312744,158.569519043,161.211456299,160.025421143,156.697021484,155.874053955,153.497848511,153.061233521,151.286956787,152.360534668,150.359008789,150.279998779,149.150100708,149.439788818,145.683853149,144.21585083,143.701156616,144.110275269,146.53326416,151.607391357,154.06703186,154.991928101,153.561431885,152.322570801,153.759872437,155.204681396,156.382766724,160.49118042,165.586517334,170.187805176,174.117004395,174.830764771,173.257446289,172.07850647,170.824798584,170.091766357,168.158477783,168.286132812,170.950515747,174.200820923,175.066940308,175.49307251,174.0675354,173.479034424,171.598602295,169.912536621,170.166564941,167.951507568,166.945266724,164.588180542,162.694168091,161.896179199,160.439071655,164.82623291,166.917175293,167.876419067,169.926773071,171.280731201,171.91986084,172.268936157,171.52633667,172.613739014,170.332214355,166.314712524,166.655807495,169.212997437,168.616500854,166.283996582,164.066009521,164.062866211,164.390716553,165.727600098,163.042694092,162.951583862,159.363739014,155.028060913,156.145706177,159.878494263,161.010391235,160.426528931,159.33366394,159.965316772,167.039978027,160.117858887,149.778045654,139.227264404,137.223342896,136.631790161,132.457962036,128.950881958,133.979949951,135.211715698,136.53666687,133.817230225,132.913497925,134.680709839
39.803881,143.209289551,146.30796814,146.792404175,149.085266113,153.93409729,158.179992676,157.64491272,153.943740845,153.277450562,154.117385864,152.103897095,151.524597168,150.714431763,150.40927124,152.319335938,151.255187988,150.100418091,148.976821899,146.15536499,144.694381714,143.856109619,143.286575317,145.961853027,152.07359314,153.47303772,153.588668823,151.871551514,150.851898193,153.32093811,153.457382202,155.399398804,159.695648193,166.02671814,172.200546265,174.377166748,176.137298584,174.019683838,172.625854492,171.25302124,169.734161377,168.720718384,169.098480225,172.241134644,175.118637085,175.407073975,175.078262329,174.668655396,172.023712158,169.371749878,168.613464355,169.850006104,168.831634521,166.577850342,165.533309937,162.627578735,160.419296265,160.180343628,162.572158813,164.897354126,167.363235474,168.217285156,169.278213501,171.675918579,172.045639038,171.841201782,171.444671631,169.528671265,168.066299438,168.689910889,170.744003296,169.688262939,168.295059204,165.834991455,166.979995728,166.260223389,166.449508667,165.517105103,164.882156372,161.299667358,156.40725708,157.30670166,160.944381714,160.666854858,156.699584961,155.065429688,154.638305664,167.10093689,159.026870728,143.344345093,142.136245728,119.152618408,118.936408997,137.085617065,128.690734863,135.663284302,140.017791748,133.531585693,131.404129028,133.463562012,134.743270874
39.803296,144.781433105,145.851699829,146.509994507,148.352935791,151.335540771,151.757354736,151.707092285,151.383346558,154.565383911,152.989624023,150.900558472,149.337112427,149.021133423,151.750732422,152.955230713,152.22505188,150.530014038,147.441253662,145.5390625,144.351043701,143.731246948,142.477645874,144.697601318,150.559997559,151.684509277,150.774688721,149.123413086,149.868255615,150.039321899,152.053359985,155.503097534,159.37109375,165.595230103,172.92276001,175.962982178,176.885009766,174.341400146,172.309997559,170.653930664,169.640533447,169.476242065,170.202575684,172.210250854,174.81401062,176.314971924,176.10949707,174.237136841,172.077972412,169.569595337,167.54598999,168.239837646,168.462646484,166.059127808,163.91078186,161.390274048,159.714889526,160.398910522,162.198501587,163.921676636,165.81072998,167.934036255,169.942153931,171.171020508,170.449127197,170.415527344,171.172454834,170.25012207,172.010910034,172.462280273,171.412017822,169.470977783,169.027435303,168.156646729,168.081588745,167.161483765,167.019989014,165.674621582,163.320449829,161.637969971,157.642944336,159.002624512,161.781860352,160.44732666,155.789276123,152.749160767,151.038513184,151.697738647,149.460205078,143.061691284,125.242233276,86.964439392,118.828056335,139.855682373,131.516403198,131.131881714,130.761749268,132.491241455,136.179580688,138.336730957,137.041625977
39.802712,143.975143433,145.077270508,146.15322876,146.912765503,147.254592896,148.533416748,148.309295654,149.659866333,151.659881592,150.346984863,149.99307251,148.163726807,148.354400635,152.314422607,151.405502319,152.518676758,149.210601807,146.926528931,145.390151978,144.864181519,143.67175293,142.234817505,144.360702515,148.058273315,146.613540649,146.647735596,148.96282959,153.039123535,151.525527954,155.606399536,156.66293335,159.672622681,164.355316162,172.320175171,177.829864502,177.792022705,174.495773315,172.281646729,171.063079834,170.221588135,171.253570557,172.965408325,173.333679199,174.988677979,177.191696167,176.655700684,173.498596191,171.585006714,169.018005371,167.532073975,166.155639648,167.452926636,166.860275269,164.208892822,159.907089233,159.386108398,160.258865356,163.127075195,165.838653564,166.108932495,166.514450073,167.994293213,170.017745972,169.521499634,169.091690063,170.457092285,173.069717407,177.755569458,176.559448242,172.288452148,168.161392212,167.496109009,168.722564697,166.892227173,163.802062988,164.671417236,165.811645508,163.708297729,162.059799194,159.103363037,161.352905273,162.32194519,161.35395813,158.165390015,153.885040283,150.600845337,148.51864624,145.300857544,149.580459595,101.187271118,72.530937195,101.947792053,136.786865234,132.245910645,129.232055664,131.11920166,136.357025146,140.147003174,140.676651001,141.585906982
39.802127,143.913208008,144.656860352,145.016998291,145.582260132,145.835372925,146.70513916,146.290039062,149.433059692,152.814422607,151.823425293,148.065841675,147.103347778,150.39642334,151.633895874,149.83366394,150.130508423,148.216659546,146.32043457,145.613891602,144.738815308,143.356704712,141.968017578,143.983901978,146.340454102,149.387634277,151.126342773,152.653991699,151.970443726,153.874725342,154.642593384,156.436782837,159.803771973,164.379455566,170.755722046,178.092514038,178.098083496,175.243728638,172.848495483,172.246566772,171.445968628,172.922576904,174.785980225,176.534515381,176.899261475,177.888000488,177.588562012,174.082794189,170.931381226,169.020477295,167.322280884,166.928695679,164.459777832,165.416931152,160.675476074,158.5,159.092498779,160.522201538,163.087875366,163.7109375,164.32333374,165.164703369,168.45513916,169.325973511,168.272674561,168.274108887,169.409225464,174.916473389,182.273590088,179.100906372,173.65562439,168.05909729,165.427337646,167.642837524,166.030273438,164.605773926,161.287811279,163.620117188,163.882415771,161.500595093,160.979995728,160.815994263,161.06817627,161.695068359,158.143783569,154.988555908,153.595840454,152.369506836,155.608016968,118.416877747,72.447555542,72.148399353,94.945983887,106.909416199,116.904441833,131.60319519,128.970977783,138.114273071,143.937042236,146.009994507,146.73500061
39.801543,143.367980957,144.132568359,143.782546997,144.260772705,144.809371948,144.36050415,146.641891479,151.239761353,152.089401245,149.618759155,146.550506592,149.086517334,149.991851807,149.748733521,148.545578003,148.993896484,147.740966797,146.604125977,144.327819824,144.373275757,142.862472534,142.78225708,145.454849243,149.824768066,151.798522949,152.539093018,154.237457275,153.937469482,154.371261597,157.044250488,158.97555542,159.318313599,164.157745361,170.482666016,177.60446167,177.497451782,176.158493042,174.250656128,173.173049927,173.070007324,174.620574951,176.247848511,177.875656128,178.984924316,178.300949097,175.060470581,174.412628174,171.322631836,169.700408936,169.60093689,168.386138916,165.070007324,162.383926392,160.168045044,158.083129883,159.616622925,161.577102661,162.132736206,161.570800781,162.770004272,166.68421936,167.756973267,167.033721924,166.500900269,167.244628906,169.287368774,174.638580322,181.242477417,181.57673645,176.529052734,169.255126953,163.991210938,162.603881836,162.920547485,162.168685913,160.005996704,161.55178833,163.366073608,159.179611206,158.238708496,159.952651978,158.946914673,159.617248535,158.510620117,158.224456787,157.073928833,151.292221069,148.171386719,86.172187805,72.964530945,73.435600281,88.728942871,103.652305603,104.761428833,111.800842285,133.154510498,129.314178467,143.347595215,147.892440796,154.067245483
